# .PCD v0.7 - Point Cloud Data file format
VERSION 0.7
FIELDS x y z rgb
SIZE 4 4 4 4
TYPE F F F U
COUNT 1 1 1 1
WIDTH 620
HEIGHT 1
VIEWPOINT 0 0 0 1 0 0 0
POINTS 620
DATA ascii
0.064056695 0.12013593 0.82237095 4279887360
-0.0058783321 0.11926575 0.82676405 4278255360
-0.075820506 0.11829026 0.83131129 4278255360
-0.14561015 0.11726036 0.83618701 4278255360
0.029347237 0.084936224 0.82150251 4278255360
-0.040681452 0.084007144 0.8259424 4278255360
-0.1106075 0.083006665 0.83065313 4278255360
-0.1802873 0.081943899 0.83572394 4279887360
0.064634085 0.050461244 0.81621706 4279887360
-0.005365226 0.049592424 0.82061136 4278255360
-0.075453378 0.048664596 0.82515734 4278255360
-0.14534318 0.04765309 0.83011574 4279887360
0.02987884 0.015063282 0.81532478 4278255360
-0.040220421 0.014208368 0.81980723 4278255360
-0.11019979 0.013227836 0.82452226 4279887360
-0.17994234 0.012221264 0.82962006 4279887360
0.065120526 -0.019384215 0.81006473 4279887360
-0.0048970175 -0.020283237 0.81455237 4278255360
-0.074969053 -0.021147162 0.81913322 4278255360
-0.14487067 -0.022087695 0.82394814 4279887360
0.074306525 0.10921783 0.97141224 4279887360
0.0043390607 0.10833196 0.97580963 4278255360
-0.065665081 0.10736766 0.98036802 4278255360
-0.13556673 0.10638268 0.98522651 4278255360
0.039579239 0.073951706 0.97052097 4278255360
-0.030484751 0.073030464 0.97497022 4278255360
-0.10046593 0.072045691 0.97972083 4278255360
-0.17028426 0.071018323 0.98475897 4278255360
0.074875548 0.03944264 0.96527851 4279887360
0.0048724767 0.038560539 0.96963221 4278255360
-0.065249503 0.037649106 0.97423398 4278255360
-0.13522351 0.036661658 0.97919554 4278255360
0.040122353 0.0040559871 0.96440065 4278255360
-0.029977614 0.0031832068 0.96886098 4278255360
-0.10000258 0.0022082715 0.97360611 4278255360
-0.16986522 0.0012068577 0.97865695 4278255360
0.075368255 -0.030397572 0.95913726 4278255360
0.0053534028 -0.031308919 0.96359813 4278255360
-0.064753927 -0.032179829 0.9682278 4278255360
-0.13472438 -0.033127736 0.97306991 4278255360
0.084822141 0.098428458 1.1205099 4279887360
0.01481186 0.097536713 1.1248779 4279887360
-0.055206615 0.096606389 1.1295074 4279887360
-0.12517703 0.095639452 1.1343383 4279887360
0.050059956 0.063121818 1.1196219 4279887360
-0.020007217 0.062222593 1.124122 4279887360
-0.090031847 0.061246887 1.12886 4279887360
-0.15990618 0.060258105 1.1338329 4278255360
0.085375763 0.02861562 1.1143578 4279887360
0.015351588 0.027727878 1.1187658 4279887360
-0.0547769 0.026829228 1.1233841 4279887360
-0.12480146 0.025860103 1.1282824 4278255360
0.050597992 -0.0067944108 1.113502 4279887360
-0.019497018 -0.0076648467 1.1179974 4279887360
-0.089559339 -0.0086276401 1.1227548 4279887360
-0.15947923 -0.0096102068 1.1277883 4278255360
0.085840523 -0.041266724 1.108278 4279887360
0.015822183 -0.042157918 1.1127304 4279887360
-0.054279923 -0.043036491 1.1173863 4279887360
-0.12429941 -0.043976489 1.1221808 4278255360
0.084061772 0.043932602 1.1162314 4279887360
0.01404076 0.042967226 1.1206658 4279887360
-0.056027707 0.041986261 1.1252736 4279887360
-0.12601572 0.040978994 1.1300656 4279887360
0.049331699 0.0085651409 1.1153907 4279887360
-0.020770771 0.0075760973 1.1198981 4279887360
-0.090819374 0.0065717623 1.124609 4279887360
-0.16069116 0.0055499189 1.129537 4278255360
0.084647983 -0.025917737 1.1101637 4279887360
0.014634202 -0.02689567 1.1145494 4279887360
-0.055526778 -0.027859284 1.1191697 4279887360
-0.12553462 -0.028851159 1.1240541 4279887360
0.049883485 -0.061375454 1.1092755 4279887360
-0.020189811 -0.062333427 1.1137942 4279887360
-0.090243883 -0.063328192 1.1185218 4279887360
-0.1601592 -0.064335212 1.123511 4278255360
0.085152991 -0.095785275 1.1040777 4279887360
0.015161562 -0.096768588 1.1085261 4279887360
-0.054921169 -0.097703367 1.1131473 4279887360
-0.12493345 -0.09867508 1.1179926 4278255360
0.073880203 0.05469811 0.96737278 4279887360
0.0038492924 0.053735126 0.97177523 4278255360
-0.06619332 0.05271104 0.97634906 4278255360
-0.1361326 0.051677756 0.98120362 4278255360
0.039150231 0.019328205 0.96649545 4279887360
-0.030948272 0.018334568 0.97097939 4278255360
-0.10096197 0.017305598 0.97571838 4278255360
-0.17077559 0.016264651 0.98071933 4278255360
0.074471973 -0.015132313 0.9612335 4279887360
0.0044753021 -0.016146954 0.96564615 4278255360
-0.065686136 -0.017107183 0.97025055 4278255360
-0.13565364 -0.018122874 0.97514266 4278255360
0.039728247 -0.05059839 0.9603644 4278255360
-0.030363452 -0.051549319 0.9648537 4278255360
-0.10038832 -0.052568853 0.96959716 4278255360
-0.17022878 -0.053593449 0.97461951 4278255360
0.074983664 -0.084986575 0.9551031 4279887360
0.0049984925 -0.085987568 0.95959181 4278255360
-0.065077089 -0.086929567 0.96422172 4278255360
-0.13502806 -0.087911792 0.96902007 4278255360
0.063750893 0.06566596 0.81833571 4279887360
-0.0062596123 0.06471967 0.82276887 4278255360
-0.076265298 0.063685305 0.82734424 4278255360
-0.14610751 0.062623732 0.83218282 4278255360
0.029026829 0.030324629 0.81747985 4278255360
-0.041053917 0.029346282 0.82195598 4278255360
-0.11101193 0.028309926 0.82667387 4278255360
-0.18071558 0.027240975 0.83173281 4278255360
0.064363211 -0.0041469894 0.81219333 4279887360
-0.0056741666 -0.0051156324 0.81659687 4278255360
-0.075783737 -0.0060808286 0.82118827 4278255360
-0.1456726 -0.0071024969 0.8261252 4278255360
0.029590543 -0.039599899 0.81131464 4278255360
-0.040491257 -0.040542077 0.81582171 4278255360
-0.11046768 -0.041531373 0.82056236 4278255360
-0.18018982 -0.042527512 0.82562983 4278255360
0.064839453 -0.073982544 0.80605137 4279887360
-0.0051469659 -0.074977823 0.81055361 4278255360
-0.075187877 -0.075878099 0.81516308 4278255360
-0.14504844 -0.076824218 0.8199591 4278255360
0.013499196 0.06571617 0.82166421 4278255360
-0.056530539 0.064701162 0.82608056 4278255360
-0.12644096 0.06363228 0.83074152 4278255360
-0.19612509 0.062541194 0.83569944 4278255360
-0.021283943 0.030344354 0.82079864 4278255360
-0.091301389 0.029338459 0.82530522 4278255360
-0.16115382 0.028259808 0.83014309 4279887360
-0.23065819 0.027188757 0.8352229 4278255360
0.014087834 -0.0041307881 0.81552899 4278255360
-0.05596076 -0.0051223487 0.81993455 4278255360
-0.12598236 -0.0060827448 0.82459116 4279887360
-0.1957138 -0.0071033752 0.82961291 4278255360
-0.020708939 -0.039606731 0.81468701 4278255360
-0.090747513 -0.040519014 0.81919152 4279887360
-0.16058624 -0.041513901 0.82399285 4279887360
-0.23016907 -0.042548504 0.82912248 4278255360
0.014583359 -0.074009135 0.80942523 4278255360
-0.055414286 -0.074952707 0.81391239 4278255360
-0.12538089 -0.075840332 0.81857318 4278255360
-0.19507886 -0.076762684 0.82338887 4278255360
0.023767814 0.054727018 0.97073907 4279887360
-0.046292335 0.053711992 0.97517103 4278255360
-0.11628111 0.052665919 0.97985029 4279887360
-0.18610075 0.051611945 0.98472452 4278255360
-0.011012402 0.019333133 0.96987849 4278255360
-0.081084877 0.018320413 0.97442245 4279887360
-0.15100004 0.017271273 0.97920191 4279887360
-0.22067703 0.016206509 0.9842124 4278255360
0.024345271 -0.015143334 0.96461755 4278255360
-0.045712743 -0.016120655 0.9690221 4278255360
-0.11578131 -0.017105421 0.97370273 4279887360
-0.18563934 -0.018130496 0.97864866 4278255360
-0.010427845 -0.050619524 0.96376818 4278255360
-0.080500327 -0.051552106 0.96829307 4278255360
-0.15043108 -0.052557323 0.97308099 4278255360
-0.22014876 -0.053579114 0.97815782 4278255360
0.024884196 -0.085028239 0.95850724 4278255360
-0.045148216 -0.085982561 0.96296555 4278255360
-0.11517088 -0.086906202 0.96768379 4278255360
-0.18498997 -0.087855972 0.97248513 4278255360
0.033618324 0.043948241 1.1195916 4278255360
-0.03646988 0.042959169 1.1240109 4278255360
-0.10649682 0.041944053 1.1286843 4279887360
-0.17640358 0.040918533 1.1334633 4279887360
-0.0011713136 0.0085439887 1.1187577 4278255360
-0.071255676 0.0075601842 1.1232744 4279887360
-0.14124101 0.0065417695 1.1280081 4279887360
-0.21103024 0.0055078077 1.1329662 4279887360
0.034194384 -0.025938155 1.1135031 4278255360
-0.035868987 -0.026920008 1.117888 4278255360
-0.1060031 -0.027870797 1.1225643 4279887360
-0.17592415 -0.028866641 1.1274747 4279887360
-0.00059175206 -0.06141578 1.1126473 4278255360
-0.070680581 -0.062337544 1.1171821 4279887360
-0.1406685 -0.063322604 1.1219112 4279887360
-0.2104823 -0.064325556 1.126925 4279887360
0.034696929 -0.095825084 1.107402 4278255360
-0.035314705 -0.096783198 1.1118902 4278255360
-0.10538952 -0.097689822 1.1165509 4279887360
-0.17530361 -0.098654591 1.1213843 4279887360
0.0340624 0.093691468 1.1234173 4278255360
-0.035983045 0.092707306 1.127858 4278255360
-0.1059728 0.091671549 1.1325465 4278255360
-0.17585835 0.090610817 1.1373988 4278255360
-0.00070708618 0.058342177 1.122597 4278255360
-0.070769347 0.057337951 1.1271408 4278255360
-0.14073291 0.056296874 1.1318723 4279887360
-0.2104868 0.055210523 1.1368583 4278255360
0.034649976 0.023886396 1.117344 4278255360
-0.035403114 0.022909513 1.1217368 4278255360
-0.10550229 0.021907564 1.1263952 4279887360
-0.17542946 0.020875666 1.1313419 4278255360
-0.00013022865 -0.011588966 1.1164713 4278255360
-0.070213497 -0.012529888 1.1210051 4278255360
-0.14020778 -0.013556691 1.1257586 4279887360
-0.20999147 -0.014590082 1.1307604 4278255360
0.035192776 -0.046021786 1.1112704 4278255360
-0.034860373 -0.046979945 1.1157086 4278255360
-0.10493082 -0.047912665 1.1203734 4278255360
-0.17484494 -0.04891178 1.1251621 4279887360
0.023541257 0.10440737 0.97429848 4279887360
-0.04646913 0.10341652 0.9787237 4279887360
-0.1164219 0.10234778 0.9833802 4279887360
-0.18621072 0.1012724 0.98825318 4279887360
-0.011212632 0.069082424 0.97343701 4279887360
-0.081258379 0.068059951 0.97794229 4279887360
-0.15115693 0.066988878 0.98272836 4279887360
-0.22081277 0.065871224 0.98770881 4279887360
0.024127267 0.034647956 0.96817988 4279887360
-0.045896571 0.033637699 0.97255248 4279887360
-0.1159765 0.0326555 0.97723138 4279887360
-0.18580788 0.031591225 0.98216236 4279887360
-0.010644959 -0.00082067214 0.96729755 4279887360
-0.080710046 -0.0017667208 0.97179818 4279887360
-0.15064389 -0.0028111103 0.97656602 4279887360
-0.22034535 -0.0038707056 0.98161107 4279887360
0.024680207 -0.03526222 0.96204323 4278255360
-0.045371987 -0.036219336 0.96651655 4279887360
-0.11540853 -0.037152484 0.97116286 4279887360
-0.18524526 -0.03815845 0.97596669 4279887360
0.013795984 0.11543968 0.82512861 4279887360
-0.056172047 0.11442103 0.82953161 4278255360
-0.12603211 0.11331955 0.8342194 4279887360
-0.19568576 0.11219285 0.83919531 4279887360
-0.020950483 0.080147453 0.82426703 4278255360
-0.090944834 0.07911136 0.82876444 4279887360
-0.16074224 0.077994749 0.83361739 4279887360
-0.23024902 0.07684999 0.8386873 4279887360
0.014372123 0.045739572 0.81901997 4279887360
-0.055649035 0.044746958 0.82337868 4278255360
-0.1256461 0.043736141 0.82804781 4279887360
-0.19534835 0.042637471 0.83308208 4279887360
-0.020403264 0.010278929 0.81811732 4278255360
-0.090437293 0.0093329744 0.82261324 4279887360
-0.16028233 0.008283955 0.82745028 4279887360
-0.22982666 0.0072020348 0.83258122 4279887360
0.014909125 -0.024159558 0.81288302 4278255360
-0.055134371 -0.025103988 0.81732601 4278255360
-0.12510733 -0.026033061 0.82199514 4279887360
-0.19480036 -0.027036874 0.82681549 4278255360
0.013959981 0.1650914 0.82898927 4279887360
-0.055911377 0.1640804 0.83335871 4279887360
-0.12568748 0.16295531 0.83803225 4279887360
-0.19530028 0.16182081 0.8429895 4279887360
-0.020741057 0.12992454 0.82808429 4279887360
-0.090655997 0.12886503 0.83255726 4278255360
-0.16039807 0.12772851 0.83741462 4279887360
-0.22987618 0.12654416 0.84248972 4279887360
0.014545121 0.095608875 0.82284158 4279887360
-0.055412736 0.094607562 0.82718295 4278255360
-0.12535682 0.093562305 0.83184946 4279887360
-0.19504645 0.092419371 0.83691472 4279887360
-0.020211991 0.060224254 0.82193506 4278255360
-0.090204991 0.05924008 0.82639444 4279887360
-0.1600287 0.058149047 0.83126032 4279887360
-0.22956178 0.057005212 0.83639461 4279887360
0.015098534 0.025818784 0.81669742 4279887360
-0.054937538 0.024868561 0.82113433 4278255360
-0.12490398 0.023890622 0.82578117 4279887360
-0.19458407 0.022810534 0.83058918 4278255360
0.024071556 0.15423654 0.97786057 4278255360
-0.045851145 0.15323171 0.9822492 4278255360
-0.1157406 0.15216206 0.98693329 4278255360
-0.18547264 0.15105514 0.991826 4278255360
-0.01064704 0.11899254 0.97696292 4278255360
-0.080631346 0.11796043 0.9814803 4279887360
-0.15048732 0.11687472 0.98629165 4279887360
-0.22008264 0.11572762 0.99129027 4278255360
0.02466294 0.084609285 0.97171289 4279887360
-0.045332439 0.08362975 0.97607088 4279887360
-0.1153507 0.082615368 0.98075032 4279887360
-0.1851584 0.081515692 0.98572886 4279887360
-0.01009183 0.049205381 0.97082168 4278255360
-0.080126107 0.048239347 0.97531533 4279887360
-0.15005732 0.047180716 0.98014903 4279887360
-0.2197203 0.046069577 0.98518574 4278255360
0.025229244 0.014782544 0.96559721 4278255360
-0.044825375 0.013838893 0.97005928 4278255360
-0.11485089 0.012871324 0.97470403 4279887360
-0.18467174 0.011814512 0.97950602 4279887360
0.084615298 0.14345343 1.1237046 4279887360
0.014684324 0.14250889 1.1280595 4279887360
-0.055297889 0.14149673 1.1326547 4279887360
-0.1252055 0.14047396 1.1374929 4279887360
0.049943883 0.10818567 1.1227833 4279887360
-0.020079341 0.10721652 1.1272706 4279887360
-0.090061679 0.10619792 1.1320139 4279887360
-0.15988538 0.10511076 1.137007 4278255360
0.08525569 0.073782139 1.1175706 4279887360
0.015284431 0.072851874 1.1219281 4279887360
-0.05480903 0.071875595 1.1265155 4279887360
-0.12479351 0.070819162 1.1314441 4279887360
0.050553035 0.038357675 1.1166947 4279887360
-0.019519059 0.037415925 1.1211953 4279887360
-0.089565024 0.036390278 1.1259204 4279887360
-0.15944207 0.035329062 1.1309372 4278255360
0.085850827 0.0039190324 1.1114984 4279887360
0.015835883 0.0029830304 1.1159179 4279887360
-0.054262783 0.0020309545 1.1205279 4279887360
-0.12426624 0.0009873762 1.1253293 4279887360
0.074193478 0.15412213 0.97484273 4279887360
0.0043066773 0.15318206 0.97917539 4278255360
-0.065629877 0.15214686 0.98374403 4278255360
-0.13546467 0.15109691 0.98859358 4278255360
0.039541684 0.11891456 0.97393423 4278255360
-0.030451655 0.11793212 0.97838283 4278255360
-0.10038705 0.11687809 0.98308432 4278255360
-0.1701217 0.11576452 0.98812771 4278255360
0.074852891 0.084547214 0.96870393 4279887360
0.0048830057 0.083615541 0.97302002 4278255360
-0.06517712 0.08262074 0.9775874 4279887360
-0.13510828 0.081540309 0.98254544 4278255360
0.040146772 0.049138971 0.96777743 4278255360
-0.029912453 0.048193786 0.97221828 4278255360
-0.099920943 0.047151506 0.97695845 4279887360
-0.16971792 0.046066128 0.98200506 4278255360
0.075446643 0.014710117 0.96256506 4279887360
0.0054355571 0.013773743 0.96697026 4278255360
-0.064647764 0.01281047 0.97157115 4278255360
-0.13459541 0.011760998 0.97636801 4279887360
0.064139269 0.16499145 0.82577389 4279887360
-0.0056863036 0.16406877 0.83014143 4278255360
-0.075532034 0.16300723 0.83469254 4278255360
-0.145243 0.16192262 0.83957124 4278255360
0.029521374 0.12988102 0.82490039 4278255360
-0.040421415 0.1288936 0.82933295 4278255360
-0.11026061 0.12780894 0.83400303 4278255360
-0.1798705 0.12665436 0.83911538 4278255360
0.064810932 0.095553473 0.81963974 4279887360
-0.0051293327 0.094635114 0.82396835 4278255360
-0.075133182 0.093621932 0.82853025 4278255360
-0.14495659 0.092513852 0.83348268 4278255360
0.03012619 0.060198959 0.81874073 4278255360
-0.039918717 0.059249088 0.82317781 4278255360
-0.10985795 0.05818902 0.8278845 4278255360
-0.17954308 0.057078142 0.83299571 4278255360
0.065420233 0.025774777 0.81346446 4279887360
-0.0045899637 0.024856659 0.81790119 4278255360
-0.074641496 0.023890886 0.82249153 4278255360
-0.14449956 0.022824174 0.82728183 4278255360
0.11363164 0.16484636 0.82270968 4281519360
0.043919478 0.16404125 0.82708132 4279887360
-0.02594321 0.16309138 0.83157527 4278255360
-0.095739514 0.16205971 0.8362295 4278255360
0.079123639 0.12980574 0.82182711 4279887360
0.009236075 0.12892732 0.82626855 4279887360
-0.060675863 0.127919 0.83079791 4278255360
-0.13040319 0.12680949 0.83572012 4278255360
0.11436947 0.095459156 0.81653392 4279887360
0.044553 0.094626918 0.82090366 4279887360
-0.025465189 0.093686715 0.8254196 4278255360
-0.095396981 0.092630036 0.83017421 4279887360
0.079788104 0.060160924 0.81567127 4279887360
0.0098072477 0.059277195 0.82011825 4278255360
-0.060211744 0.058263429 0.82468796 4279887360
-0.13005063 0.057183143 0.82963771 4279887360
0.11500403 0.025743613 0.81038845 4279887360
0.045137808 0.024859374 0.81481826 4279887360
-0.024928737 0.023931023 0.81938374 4278255360
-0.094917931 0.022890255 0.82402211 4279887360
0.12436686 0.15400907 0.97165769 4279887360
0.054564457 0.15313929 0.97603333 4278255360
-0.015364838 0.15216431 0.98054051 4278255360
-0.085259072 0.15115485 0.98527867 4278255360
0.089809187 0.11884411 0.97079337 4279887360
0.019859144 0.11791512 0.97519922 4278255360
-0.050106611 0.11691261 0.97982562 4278255360
-0.11994562 0.11583043 0.98478067 4278255360
0.12507313 0.08445695 0.96548456 4279887360
0.055212252 0.083574735 0.9698714 4279887360
-0.014844495 0.082619481 0.97439021 4278255360
-0.084842592 0.081563905 0.97921836 4278255360
0.090465777 0.049092781 0.9646101 4279887360
0.020455875 0.048175614 0.96908951 4278255360
-0.049593259 0.047158681 0.97373188 4278255360
-0.11951207 0.046084467 0.97870719 4278255360
0.12570426 0.014682758 0.95934421 4279887360
0.055805996 0.013753079 0.9637925 4279887360
-0.014277902 0.012794483 0.96833664 4278255360
-0.084319964 0.011750536 0.97312254 4278255360
0.13439804 0.09388303 1.1169786 4279887360
0.064487427 0.09298563 1.1213704 4279887360
-0.0055444418 0.092024714 1.125874 4279887360
-0.075541861 0.091043428 1.1306111 4278255360
0.099744424 0.058597047 1.116089 4279887360
0.029723095 0.057639554 1.1205235 4279887360
-0.040327474 0.056650728 1.1251972 4278255360
-0.11027595 0.055622324 1.1301394 4278255360
0.13502228 0.02415072 1.1108419 4279887360
0.065112092 0.023206318 1.1152079 4279887360
-0.0050134156 0.022267941 1.1197766 4279887360
-0.075092733 0.021241721 1.1246001 4278255360
0.10033365 -0.011288828 1.1099702 4279887360
0.030311074 -0.012242268 1.114428 4279887360
-0.039777607 -0.01325395 1.119118 4278255360
-0.10978405 -0.014270038 1.1240584 4278255360
0.1355602 -0.045715179 1.1047729 4279887360
0.065635458 -0.046666063 1.1091553 4279887360
-0.0044497163 -0.047646273 1.1137637 4278255360
-0.074527264 -0.048653059 1.1185272 4278255360
0.12425695 0.1047837 0.96791059 4279887360
0.054401204 0.10388284 0.97237587 4279887360
-0.015591527 0.10290948 0.97687525 4278255360
-0.085546181 0.10190016 0.98164684 4278255360
0.089649476 0.069527462 0.96709031 4279887360
0.019663999 0.068571992 0.971542 4278255360
-0.050359178 0.067567527 0.97617251 4278255360
-0.12024038 0.066504769 0.98113263 4278255360
0.12491158 0.035105146 0.96179026 4279887360
0.055015292 0.034175284 0.96619642 4279887360
-0.015059855 0.03320618 0.97074407 4278255360
-0.08510308 0.032179069 0.9756074 4278255360
0.090259604 -0.00032344673 0.96092302 4279887360
0.020246692 -0.0012688977 0.96540421 4278255360
-0.049821354 -0.0022875192 0.97009039 4278255360
-0.11976112 -0.0033298596 0.97507429 4278255360
0.12548207 -0.0347193 0.95565748 4279887360
0.055583976 -0.03570145 0.96010762 4279887360
-0.014485987 -0.036662813 0.96471161 4278255360
-0.084530994 -0.037689269 0.96947068 4278255360
0.11388692 0.11561827 0.81894886 4279887360
0.044082496 0.11477149 0.82337046 4279887360
-0.025865065 0.11379473 0.82786375 4278255360
-0.095743351 0.11276742 0.83255464 4278255360
0.079320952 0.080426775 0.8180778 4279887360
0.0093517611 0.07951507 0.82253796 4278255360
-0.060626045 0.07849741 0.82711947 4278255360
-0.13041392 0.07741601 0.83205843 4278255360
0.11455631 0.046017047 0.81274438 4279887360
0.044707447 0.045119919 0.81717795 4278255360
-0.025373746 0.044176083 0.82169521 4278255360
-0.095356539 0.043134008 0.82651001 4278255360
0.079936266 0.010618542 0.8118825 4279887360
0.0099234246 0.0096971141 0.81635916 4278255360
-0.060129151 0.0086954404 0.82101458 4278255360
-0.12998801 0.0076544061 0.82598805 4278255360
0.11512987 -0.023780722 0.80662793 4279887360
0.04525926 -0.02473326 0.81106418 4278255360
-0.024825135 -0.025687704 0.81566912 4278255360
-0.09482035 -0.026697064 0.82037902 4278255360
0.11330837 0.065591127 0.8152222 4279887360
0.043457881 0.064694449 0.81965274 4279887360
-0.026561381 0.063716069 0.82415527 4279887360
-0.096500926 0.062708296 0.82882512 4279887360
0.078693561 0.030300688 0.81436515 4279887360
0.0086889723 0.029350016 0.81883019 4279887360
-0.061342668 0.028353913 0.82341582 4279887360
-0.13117284 0.027316166 0.82834589 4279887360
0.11391204 -0.0041099731 0.80904913 4279887360
0.044043437 -0.0050665536 0.81346166 4278255360
-0.02605617 -0.0060340096 0.81802416 4279887360
-0.096064471 -0.0070402082 0.82283264 4279887360
0.079249978 -0.039554294 0.80818111 4279887360
0.0092479233 -0.040523361 0.81266999 4278255360
-0.060801327 -0.041519016 0.81731927 4279887360
-0.13066582 -0.042511761 0.82228649 4279887360
0.11441903 -0.073907457 0.80297035 4279887360
0.044563588 -0.074920662 0.80740541 4279887360
-0.025482457 -0.07588581 0.81197411 4279887360
-0.095461622 -0.07686279 0.8166728 4279887360
0.12402149 0.054625686 0.96408278 4279887360
0.054125633 0.053683583 0.96854395 4279887360
-0.015906217 0.052689251 0.97308123 4278255360
-0.085896559 0.051707838 0.97780776 4278255360
0.08937154 0.01928393 0.9632414 4279887360
0.01935841 0.018310426 0.96772736 4278255360
-0.050687283 0.017311163 0.97239363 4278255360
-0.12058669 0.016282901 0.97730285 4278255360
0.12461898 -0.015119364 0.95796698 4279887360
0.054716747 -0.016097376 0.96236283 4279887360
-0.015382211 -0.017088259 0.9669522 4278255360
-0.085424155 -0.018095914 0.9718219 4278255360
0.089935832 -0.050576221 0.95708466 4279887360
0.019926934 -0.05156491 0.96158308 4278255360
-0.050132398 -0.052584648 0.96628839 4278255360
-0.12005545 -0.053589474 0.97126073 4278255360
0.12512395 -0.084937163 0.9518373 4279887360
0.055242248 -0.085959621 0.95630789 4278255360
-0.0148026 -0.08694575 0.96091306 4278255360
-0.084818192 -0.087947011 0.96567714 4278255360
0.13389795 0.043708395 1.1132915 4279887360
0.063985988 0.042766899 1.117713 4278255360
-0.0060546622 0.041804336 1.1222755 4278255360
-0.076094359 0.04083709 1.1270107 4278255360
0.09923064 0.0083637992 1.1124792 4279887360
0.029203756 0.0074003818 1.1169057 4278255360
-0.040856037 0.0064196219 1.1215451 4278255360
-0.11080285 0.0054070144 1.1264637 4278255360
0.13447173 -0.02606665 1.1071734 4279887360
0.064565852 -0.027032485 1.1116108 4278255360
-0.0055388426 -0.02800185 1.1161398 4278255360
-0.075615488 -0.028997565 1.1209689 4278255360
0.099771246 -0.061518885 1.1063397 4279887360
0.029755661 -0.062483504 1.1108057 4278255360
-0.040300705 -0.063493446 1.1154783 4278255360
-0.11027431 -0.064484574 1.1204205 4278255360
0.13495842 -0.095879614 1.1010396 4279887360
0.065072164 -0.096891291 1.1055478 4279887360
-0.004981224 -0.097858325 1.1101176 4278255360
-0.075014628 -0.098865651 1.1148367 4278255360
0.1079982 0.075698704 1.117395 4279887360
0.038648095 0.066243671 1.1210818 4278255360
-0.030803517 0.056719538 1.1249496 4278255360
-0.10021929 0.047216587 1.1290215 4279887360
0.077867389 0.036408532 1.115939 4278255360
0.0084245894 0.026917135 1.1197031 4278255360
-0.061026454 0.017388446 1.1236806 4279887360
-0.13034903 0.0078432877 1.1279145 4279887360
0.11711438 0.0065689841 1.1107932 4279887360
0.047756501 -0.0029061474 1.1144991 4278255360
-0.021756157 -0.012420583 1.118358 4278255360
-0.091208503 -0.021965526 1.1224996 4279887360
0.08697924 -0.032829866 1.1093526 4278255360
0.017534038 -0.042334069 1.1131253 4278255360
-0.051938463 -0.05187732 1.11713 4278255360
-0.1212836 -0.061407331 1.1213605 4279887360
0.12617229 -0.062647499 1.1042241 4279887360
0.056831591 -0.072159477 1.10796 4278255360
-0.012640124 -0.08165925 1.1118456 4278255360
-0.082082354 -0.091207936 1.1159531 4279887360
0.14842689 0.021961616 1.1105505 4279887360
0.078706712 0.026471404 1.1154231 4279887360
0.0088399239 0.030960495 1.1203566 4279887360
-0.061029457 0.035460301 1.1254616 4279887360
0.11112657 -0.01059424 1.1101477 4279887360
0.041289497 -0.0061060381 1.1150134 4279887360
-0.028599169 -0.0016314483 1.1200682 4279887360
-0.098390207 0.002825211 1.1253331 4279887360
0.14354457 -0.047658343 1.1048487 4279887360
0.073824599 -0.04319004 1.1096388 4279887360
0.003901806 -0.03870612 1.1146226 4279887360
-0.066002764 -0.034239847 1.1198488 4279887360
0.10620803 -0.080318935 1.1043938 4279887360
0.036381718 -0.075841434 1.1092753 4279887360
-0.033519443 -0.071391679 1.1143544 4279887360
-0.10332214 -0.066925876 1.1197013 4279887360
0.13858669 -0.11732771 1.0991825 4279887360
0.068867981 -0.11289471 1.1039815 4279887360
-0.0010007262 -0.10842526 1.10901 4279887360
-0.070867665 -0.10396693 1.1141702 4279887360
0.12169548 0.0060195844 1.1341448 4278255360
0.051703744 0.004700595 1.1377751 4278255360
-0.018408742 0.0033738173 1.1415738 4278255360
-0.088487715 0.0020772633 1.1455435 4279887360
0.086969122 -0.02910432 1.1296954 4278255360
0.016888995 -0.030427525 1.1334153 4278255360
-0.053216137 -0.03175576 1.1373038 4279887360
-0.12319522 -0.033108402 1.1414269 4279887360
0.12225119 -0.062913761 1.1216378 4278255360
0.052259315 -0.064236753 1.125272 4278255360
-0.017874215 -0.065553695 1.1290547 4278255360
-0.087965265 -0.066906914 1.1331245 4279887360
0.087505572 -0.098103024 1.1171765 4278255360
0.017451912 -0.099419422 1.1209038 4278255360
-0.052643664 -0.10077779 1.124809 4279887360
-0.12262215 -0.10211527 1.1289819 4279887360
0.12273222 -0.13184397 1.1091534 4278255360
0.052779682 -0.1332027 1.1128086 4278255360
-0.017290331 -0.13451844 1.1166673 4278255360
-0.087343529 -0.13585803 1.1206322 4279887360
0.1186741 0.2006353 1.0937203 4281519360
0.048827246 0.19948977 1.0974916 4279887360
-0.021106027 0.19826475 1.1014636 4279887360
-0.0910137 0.19701093 1.1056579 4278255360
0.084518865 0.1652828 1.0971223 4279887360
0.014561937 0.1641002 1.1010134 4278255360
-0.055416316 0.16284707 1.1050864 4278255360
-0.12527774 0.16154763 1.1095455 4278255360
0.12027367 0.13098988 1.0968301 4281519360
0.050362911 0.12983821 1.1006212 4279887360
-0.019707166 0.12862325 1.1045567 4278255360
-0.089727491 0.1273507 1.1088771 4278255360
0.086075887 0.095433205 1.1002775 4279887360
0.016040351 0.094261274 1.1041254 4278255360
-0.054014303 0.092995211 1.1082418 4278255360
-0.1239832 0.091707043 1.1127245 4278255360
0.12182736 0.061084345 1.100016 4281519360
0.051848348 0.059905134 1.103792 4279887360
-0.018256284 0.058711499 1.1078032 4278255360
-0.088324994 0.057422169 1.1120074 4278255360
0.27845442 0.078813806 1.0588409 4281519360
0.21009836 0.077388704 1.0711735 4279887360
0.14147909 0.075925708 1.083689 4279887360
0.072665147 0.074464232 1.0962905 4278255360
0.24480361 0.043232512 1.0631828 4279887360
0.17630535 0.0417675 1.0756909 4279887360
0.10756513 0.040246435 1.0882423 4279887360
0.03872136 0.038691189 1.1009451 4278255360
0.27946949 0.00911857 1.0552002 4281519360
0.21113403 0.0075998674 1.0676076 4279887360
0.14245118 0.0060689831 1.0801148 4279887360
0.073615544 0.0044983774 1.092847 4278255360
0.24578694 -0.02661453 1.0596507 4279887360
0.17727701 -0.028168295 1.0720965 4279887360
0.10852385 -0.029777341 1.0846918 4279887360
0.039657369 -0.031384546 1.0975282 4279887360
0.28040528 -0.060680464 1.0517757 4281519360
0.21204689 -0.062291767 1.0641285 4279887360
0.14340499 -0.063897364 1.0766641 4279887360
0.074557267 -0.06555368 1.0892999 4279887360
-0.0022240006 0.075178519 1.1638305 4278255360
-0.071953475 0.074285656 1.155547 4278255360
-0.14165349 0.073386602 1.1474921 4278255360
-0.2111911 0.072481923 1.1396106 4278255360
-0.036531102 0.039760388 1.1580955 4278255360
-0.10628436 0.038884845 1.1498942 4278255360
-0.17592293 0.03798537 1.1419652 4278255360
-0.24532835 0.037072383 1.1341658 4278255360
-0.0010133324 0.0051503703 1.1606796 4278255360
-0.070753373 0.0043122335 1.1523497 4278255360
-0.14051554 0.0034698453 1.1442614 4278255360
-0.21012624 0.0025918048 1.1364564 4278255360
-0.035309292 -0.030361401 1.1549248 4278255360
-0.10507917 -0.031173738 1.1467103 4278255360
-0.17474209 -0.032020625 1.1387383 4278255360
-0.24420737 -0.032882687 1.1310445 4278255360
0.00019413642 -0.064959429 1.157504 4278255360
-0.069560125 -0.065770514 1.1492182 4278255360
-0.13930024 -0.066559158 1.1411574 4278255360
-0.20887449 -0.067392699 1.1332321 4278255360
