# .PCD v0.7 - Point Cloud Data file format
VERSION 0.7
FIELDS x y z rgb
SIZE 4 4 4 4
TYPE F F F U
COUNT 1 1 1 1
WIDTH 620
HEIGHT 1
VIEWPOINT 0 0 0 1 0 0 0
POINTS 620
DATA ascii
0.064833172 0.11998318 0.82181299 4279887360
-0.0049033929 0.11911111 0.82625622 4279887360
-0.074647792 0.11813393 0.830854 4281519360
-0.14424162 0.11710235 0.83578098 4281519360
0.030229453 0.084878884 0.82096875 4279887360
-0.039600704 0.083948039 0.825459 4279887360
-0.10932976 0.082945868 0.83022064 4281519360
-0.17881496 0.081881419 0.83534312 4281519360
0.065423466 0.050501607 0.81565738 4279887360
-0.00437719 0.04963088 0.8201018 4279887360
-0.074267104 0.048701234 0.82469839 4279887360
-0.14396113 0.047687951 0.82970834 4281519360
0.030774171 0.015199593 0.81478924 4279887360
-0.039126515 0.014342689 0.81932217 4279887360
-0.10890874 0.013360407 0.82408816 4279887360
-0.1784566 0.012351988 0.82923776 4281519360
0.065923057 -0.019150285 0.80950332 4279887360
-0.0038961992 -0.020051176 0.81404132 4279887360
-0.073770188 -0.02091711 0.81867284 4279887360
-0.14347534 -0.021859545 0.82353896 4281519360
0.07438425 0.10902642 0.97122651 4278255360
0.0046153241 0.10813869 0.97567409 4278255360
-0.065190896 0.10717267 0.98028302 4279887360
-0.13489629 0.10618589 0.98519284 4279887360
0.039762843 0.073855884 0.97035939 4278255360
-0.030102544 0.072932847 0.974859 4279887360
-0.099886738 0.071946323 0.97966063 4279887360
-0.16950987 0.070917189 0.98475057 4279887360
0.074966095 0.039444599 0.96509105 4278255360
0.0051618661 0.038560648 0.96949482 4279887360
-0.064762011 0.037647322 0.97414732 4279887360
-0.13453999 0.03665803 0.97916055 4278255360
0.04031878 0.0041538565 0.96423745 4278255360
-0.029582517 0.0032791456 0.96874815 4279887360
-0.099410325 0.0023024299 0.97354436 4279887360
-0.16907769 0.0012991719 0.97864699 4279887360
0.075471878 -0.030202065 0.95894814 4279887360
0.0056554247 -0.031115238 0.96345937 4279887360
-0.064253964 -0.031988159 0.96813983 4279887360
-0.13402787 -0.032937966 0.97303319 4279887360
0.084200054 0.098198012 1.1206963 4279887360
0.014388575 0.097304434 1.1251146 4278255360
-0.055432245 0.096372262 1.1297947 4278255360
-0.12520607 0.095403485 1.1346769 4278255360
0.049543835 0.062987067 1.1198325 4278255360
-0.020324947 0.062085968 1.1243832 4278255360
-0.09015239 0.061108485 1.1291721 4278255360
-0.15983108 0.060117859 1.1341966 4278255360
0.084766619 0.028578652 1.1145425 4279887360
0.01494111 0.027689047 1.1190007 4278255360
-0.054989323 0.026788464 1.1236697 4278255360
-0.12481742 0.025817472 1.1286197 4278255360
0.050094701 -0.0067354157 1.1137111 4278255360
-0.019801807 -0.0076078041 1.1182568 4278255360
-0.089666918 -0.0085724192 1.1230655 4278255360
-0.15939127 -0.0095568746 1.1281506 4278255360
0.085244261 -0.041110057 1.1084611 4278255360
0.015424374 -0.042003129 1.1129639 4278255360
-0.054479927 -0.042883705 1.1176708 4278255360
-0.1243025 -0.0438256 1.1225164 4278255360
0.083451167 0.043852907 1.1164185 4278255360
0.013628686 0.042885866 1.1209031 4278255360
-0.056241885 0.041903198 1.1255616 4278255360
-0.12603307 0.040894218 1.1304048 4278255360
0.048826747 0.0085812854 1.115602 4278255360
-0.021077275 0.0075906063 1.1201599 4278255360
-0.09092851 0.0065845856 1.1249219 4278255360
-0.16060443 0.0055610104 1.1299014 4278255360
0.084049843 -0.02580389 1.1103493 4278255360
0.014234778 -0.026783429 1.1147851 4278255360
-0.055728067 -0.027748801 1.1194562 4278255360
-0.12553944 -0.028742474 1.1243919 4278255360
0.049391292 -0.0611655 1.1094853 4278255360
-0.020483689 -0.062125195 1.1140544 4278255360
-0.09034045 -0.063121684 1.1188332 4278255360
-0.16006005 -0.0641305 1.1238739 4278255360
0.084567636 -0.095477827 1.1042618 4278255360
0.014774577 -0.096462764 1.1087604 4278255360
-0.055110261 -0.097399376 1.1134324 4278255360
-0.12492588 -0.098372929 1.1183289 4278255360
0.0739673 0.054657415 0.96718812 4279887360
0.0041350918 0.053692777 0.97164077 4279887360
-0.065709561 0.052667122 0.97626525 4279887360
-0.13545246 0.05163217 0.98117113 4279887360
0.039343137 0.019383376 0.96633494 4279887360
-0.030556822 0.018388128 0.97086936 4279887360
-0.10037339 0.017357526 0.97565943 4279887360
-0.16999167 0.016314868 0.980712 4279887360
0.074571833 -0.014979484 0.96104705 4279887360
0.0047737025 -0.015995642 0.96550995 4279887360
-0.065189533 -0.016957631 0.97016513 4279887360
-0.13496074 -0.017975058 0.97510868 4279887360
0.039933909 -0.050349437 0.96020228 4279887360
-0.029959289 -0.051302098 0.964742 4279887360
-0.099787004 -0.052323289 0.96953654 4279887360
-0.16943213 -0.053349651 0.97461057 4279887360
0.075096495 -0.08464016 0.95491505 4279887360
0.0053094896 -0.085642748 0.95945412 4279887360
-0.064568266 -0.086586565 0.96413481 4279887360
-0.13432257 -0.087570578 0.96898437 4279887360
0.064536363 0.0656638 0.81777877 4281519360
-0.0052756411 0.064715795 0.82226223 4281519360
-0.075083494 0.063679896 0.8268882 4281519360
-0.14472955 0.062616736 0.83177799 4281519360
0.029917996 0.030418247 0.81694716 4281519360
-0.039964225 0.029438252 0.82147372 4281519360
-0.10972518 0.028400298 0.82624257 4281519360
-0.1792341 0.027329687 0.83135319 4281519360
0.0651614 -0.0039556711 0.81163466 4281519360
-0.0046772682 -0.0049259546 0.81608838 4281519360
-0.074588738 -0.0058928896 0.82073051 4281519360
-0.14428174 -0.0069162948 0.82571894 4281519360
0.030494662 -0.039312489 0.81078017 4281519360
-0.039388742 -0.040256433 0.81533778 4281519360
-0.10916815 -0.041247465 0.82012945 4281519360
-0.17869553 -0.042245466 0.82524866 4281519360
0.065650769 -0.073597692 0.80549097 4281519360
-0.004137537 -0.074594587 0.81004363 4281519360
-0.073980629 -0.075496778 0.81470388 4281519360
-0.14364478 -0.076444775 0.81955099 4281519360
0.014426623 0.065710716 0.82114357 4279887360
-0.055404484 0.064694196 0.82561016 4279887360
-0.12511776 0.063623831 0.83032197 4281519360
-0.19460678 0.062531196 0.83533132 4281519360
-0.020250592 0.030434769 0.82030225 4279887360
-0.090069853 0.029427286 0.82485932 4281519360
-0.1597261 0.028347101 0.82974839 4281519360
-0.22903645 0.027274396 0.83487988 4283151360
0.015028015 -0.0039426708 0.81500661 4279887360
-0.054821841 -0.0049358108 0.81946242 4281519360
-0.1246459 -0.0058979858 0.82416987 4281519360
-0.19418235 -0.0069203903 0.82924324 4281519360
-0.019662919 -0.039322477 0.81418902 4279887360
-0.089503214 -0.040236603 0.81874394 4281519360
-0.15914562 -0.041233234 0.82359642 4281519360
-0.22853442 -0.042269617 0.82877791 4283151360
0.015536436 -0.07362739 0.80890131 4279887360
-0.054262988 -0.074572705 0.81343883 4281519360
-0.12403224 -0.075462304 0.81815046 4281519360
-0.19353439 -0.076386601 0.82301724 4281519360
0.023996266 0.054683082 0.97059071 4279887360
-0.045865234 0.053666528 0.97507298 4279887360
-0.1156567 0.052618898 0.97980314 4279887360
-0.18528041 0.051563308 0.98472869 4279887360
-0.010678064 0.019385116 0.96975446 4279887360
-0.080552347 0.018370809 0.97434902 4279887360
-0.15027088 0.01732008 0.97917956 4279887360
-0.219753 0.016253667 0.98424166 4279887360
0.024586445 -0.014993649 0.96446753 4279887360
-0.045272797 -0.015972588 0.96892232 4279887360
-0.1151438 -0.01695908 0.97365385 4279887360
-0.18480611 -0.017985886 0.97865129 4279887360
-0.010080873 -0.0503737 0.96364248 4279887360
-0.079955064 -0.051308077 0.96821791 4279887360
-0.14968915 -0.052315008 0.97305697 4279887360
-0.21921213 -0.053338595 0.97818553 4279887360
0.025138156 -0.084684893 0.95835561 4279887360
-0.044695798 -0.085640922 0.96286428 4279887360
-0.11452119 -0.086566471 0.96763349 4279887360
-0.18414402 -0.087518111 0.9724859 4279887360
0.033150133 0.043865327 1.1198152 4278255360
-0.036739275 0.042874664 1.1242847 4278255360
-0.10656874 0.041857909 1.129009 4278255360
-0.17627887 0.040830731 1.1338391 4278255360
-0.0015337084 0.0085570114 1.1190056 4278255360
-0.071419716 0.0075715543 1.1235728 4279887360
-0.14120798 0.0065514846 1.1283576 4279887360
-0.21080177 0.0055158124 1.1333672 4278255360
0.03373877 -0.025827415 1.1137251 4278255360
-0.036125723 -0.026810866 1.1181601 4278255360
-0.10606203 -0.027763473 1.1228875 4279887360
-0.175787 -0.028761113 1.1278492 4278255360
-0.00094149821 -0.061208896 1.1128936 4278255360
-0.070832029 -0.062132489 1.117479 4279887360
-0.14062284 -0.063119292 1.122259 4279887360
-0.21024135 -0.06412407 1.1273245 4278255360
0.034254175 -0.09552069 1.1076223 4278255360
-0.0355592 -0.096480511 1.112161 4278255360
-0.10543632 -0.097389065 1.1168725 4279887360
-0.175154 -0.098355681 1.1217571 4278255360
0.033584863 0.093470983 1.1236402 4278255360
-0.036262013 0.092485204 1.1281314 4278255360
-0.10605448 0.09144786 1.1328707 4278255360
-0.17574382 0.090385541 1.1377743 4278255360
-0.0010789445 0.05821747 1.1228442 4278255360
-0.07094305 0.057211634 1.1274387 4278255360
-0.14070961 0.056168966 1.1322212 4278255360
-0.21026827 0.05508104 1.1372588 4278255360
0.034184922 0.023859331 1.1175654 4278255360
-0.035669357 0.022880835 1.1220083 4278255360
-0.10557077 0.021877218 1.1267177 4278255360
-0.175302 0.020843605 1.1317159 4278255360
-0.00048935664 -0.011519882 1.1167169 4278255360
-0.07037434 -0.012462582 1.1213013 4278255360
-0.14017162 -0.013491026 1.1261059 4278255360
-0.20976007 -0.014526148 1.1311593 4278255360
0.034740329 -0.045855146 1.1114902 4278255360
-0.035114206 -0.046814993 1.1159787 4278255360
-0.104987 -0.047749572 1.1206944 4278255360
-0.17470451 -0.048750419 1.1255343 4278255360
0.023763629 0.10422613 0.97414923 4278255360
-0.046048228 0.10323369 0.9786247 4278255360
-0.1158037 0.10216347 0.98333204 4278255360
-0.1853967 0.10108653 0.98825628 4278255360
-0.010884441 0.068996921 0.97331202 4278255360
-0.080731913 0.067972906 0.97786778 4278255360
-0.15043391 0.066900298 0.98270494 4278255360
-0.21989481 0.065781154 0.98773694 4278255360
0.024362339 0.034660038 0.9680289 4278255360
-0.045462698 0.033648267 0.97245169 4278255360
-0.11534502 0.032664333 0.97718149 4279887360
-0.18498069 0.031598445 0.98216397 4278255360
-0.010303942 -0.00071245735 0.96717083 4278255360
-0.080170654 -0.0016602539 0.97172195 4279887360
-0.14990775 -0.0027062418 0.97654092 4278255360
-0.21941441 -0.0037675144 0.9816376 4278255360
0.024928138 -0.035056401 0.96189058 4278255360
-0.044925608 -0.036015224 0.96641433 4278255360
-0.11476452 -0.036950219 0.97111148 4279887360
-0.18440494 -0.037957903 0.97596639 4278255360
0.01471613 0.11529686 0.82460648 4279887360
-0.055053413 0.11427672 0.82905972 4279887360
-0.12471661 0.11317384 0.83379835 4281519360
-0.19417532 0.11204568 0.83882576 4281519360
-0.019924534 0.08010029 0.82376915 4279887360
-0.089720741 0.0790627 0.82831705 4279887360
-0.15932222 0.077944651 0.83322126 4281519360
-0.22863494 0.076798446 0.83834279 4283151360
0.015304968 0.045789916 0.81849623 4279887360
-0.054517329 0.044795752 0.822905 4279887360
-0.124317 0.043783288 0.82762498 4279887360
-0.19382443 0.042683054 0.83271092 4281519360
-0.019364372 0.010425397 0.81761771 4279887360
-0.089200109 0.0094776973 0.82216412 4279887360
-0.15884897 0.0084270639 0.82705235 4281519360
-0.22819939 0.007343492 0.8322351 4281519360
0.01585488 -0.023915505 0.81235754 4279887360
-0.053990055 -0.02486166 0.8168509 4279887360
-0.12376568 -0.025792602 0.82157087 4279887360
-0.19326293 -0.02679814 0.82644224 4281519360
0.014871477 0.16481124 0.82846677 4279887360
-0.054801542 0.16379873 0.83288628 4279887360
-0.12438098 0.16267233 0.8376106 4281519360
-0.1937989 0.1615364 0.84261924 4283151360
-0.019723682 0.1297397 0.82758594 4279887360
-0.089440614 0.12867878 0.83210927 4279887360
-0.15898696 0.12754087 0.83701783 4281519360
-0.22827113 0.12635519 0.84214461 4283151360
0.015469503 0.095521294 0.8223173 4279887360
-0.054289617 0.09451846 0.82670867 4279887360
-0.12403647 0.093471654 0.83142602 4279887360
-0.19353145 0.092327259 0.83654302 4281519360
-0.019181589 0.060232595 0.82143492 4279887360
-0.088976264 0.059246797 0.82594466 4279887360
-0.15860401 0.058154251 0.83086181 4281519360
-0.22794324 0.05700893 0.83604789 4281519360
0.016035827 0.025924619 0.81617141 4279887360
-0.053801682 0.024972688 0.82065862 4279887360
-0.12357073 0.023993025 0.82535625 4279887360
-0.19305503 0.022911426 0.83021533 4281519360
0.024285499 0.15391761 0.97770995 4278255360
-0.045438785 0.15291126 0.98214871 4278255360
-0.11513125 0.15184012 0.98688364 4278255360
-0.18466775 0.15073173 0.99182773 4279887360
-0.010327211 0.11876915 0.97683644 4278255360
-0.080113493 0.11773552 0.9814043 4278255360
-0.14977315 0.11664831 0.98626685 4278255360
-0.21917382 0.11549979 0.99131697 4279887360
0.024889722 0.084483333 0.97156048 4278255360
-0.044906873 0.083502211 0.97596854 4278255360
-0.11472772 0.082486182 0.98069894 4278255360
-0.18434002 0.081384964 0.98572898 4278255360
-0.0097591076 0.049175393 0.97069347 4278255360
-0.079595082 0.04820767 0.97523755 4279887360
-0.14932984 0.047147445 0.98012251 4278255360
-0.21879815 0.046034779 0.9852109 4279887360
0.025468763 0.014850094 0.96544313 4278255360
-0.044387344 0.013904707 0.96995556 4278255360
-0.11421525 0.012935383 0.9746511 4279887360
-0.18383986 0.011876995 0.97950429 4279887360
0.083987847 0.14309856 1.1238902 4278255360
0.014255472 0.14215235 1.1282951 4278255360
-0.055529062 0.14113858 1.1329409 4278255360
-0.12524031 0.14011411 1.1378305 4278255360
0.049422268 0.10792641 1.1229929 4278255360
-0.020402659 0.10695558 1.1275307 4278255360
-0.090187982 0.10593532 1.1323249 4278255360
-0.15981628 0.10484657 1.1373696 4278255360
0.084640853 0.073620364 1.1177543 4278255360
0.014868313 0.072688371 1.1221619 4278255360
-0.055027079 0.071710393 1.1268001 4278255360
-0.12481537 0.070652306 1.1317801 4278255360
0.050043903 0.038291909 1.1169027 4278255360
-0.019829795 0.037348401 1.1214538 4278255360
-0.089678466 0.036321118 1.1262299 4278255360
-0.15936005 0.035258237 1.1312984 4278255360
0.085248433 0.0039508338 1.1116805 4278255360
0.015432071 0.0030130954 1.1161504 4278255360
-0.054468606 0.0020592366 1.120811 4278255360
-0.12427525 0.0010140397 1.1256636 4278255360
0.074264467 0.15380652 0.9746567 4278255360
0.0045762337 0.15286477 0.97903925 4278255360
-0.065162666 0.15182805 0.98365849 4278255360
-0.13480139 0.15077648 0.98855931 4279887360
0.039718408 0.11869439 0.97377223 4278255360
-0.030076558 0.11771033 0.97827113 4278255360
-0.099814907 0.11665476 0.98302358 4278255360
-0.16935466 0.11553966 0.98811865 4279887360
0.074936479 0.084424436 0.96851605 4278255360
0.0051654931 0.083491065 0.97288209 4278255360
-0.06469658 0.082494617 0.97750014 4279887360
-0.13443184 0.081412598 0.98250973 4278255360
0.040336307 0.049112182 0.96761364 4278255360
-0.029524298 0.04816528 0.97210479 4278255360
-0.099335678 0.047121402 0.97689605 4278255360
-0.16893759 0.046034414 0.98199439 4278255360
0.075542986 0.014780879 0.9623754 4279887360
0.0057305284 0.013842776 0.96683085 4278255360
-0.064154819 0.012877755 0.97148246 4279887360
-0.1339058 0.011826686 0.97633052 4278255360
0.064908519 0.16471466 0.82521546 4279887360
-0.0047188322 0.16379024 0.829633 4281519360
-0.074367121 0.16272725 0.8342346 4281519360
-0.14388254 0.16164112 0.83916456 4283151360
0.030396113 0.12969939 0.82436609 4279887360
-0.03934839 0.12871037 0.8288489 4281519360
-0.10899071 0.12762427 0.83356977 4281519360
-0.1784064 0.12646824 0.83873391 4283151360
0.065592743 0.09546914 0.81907946 4279887360
-0.0041487664 0.094549038 0.82345802 4279887360
-0.073954724 0.093534268 0.82807058 4281519360
-0.14358255 0.092424683 0.83307445 4281519360
0.03101377 0.060210463 0.81820458 4279887360
-0.038832545 0.059258878 0.82269198 4279887360
-0.10857474 0.058197286 0.82744956 4281519360
-0.17806543 0.05708484 0.83261269 4281519360
0.066214927 0.025883842 0.81290233 4279887360
-0.0035967829 0.02496393 0.81738937 4279887360
-0.073450394 0.023996424 0.82203043 4281519360
-0.14311205 0.022928167 0.82687181 4281519360
0.1142601 0.16457297 0.82211602 4279887360
0.04474581 0.1637658 0.82653761 4279887360
-0.024919108 0.1628142 0.83108193 4279887360
-0.09451858 0.16178097 0.83578688 4281519360
0.079857297 0.12962735 0.82125753 4279887360
0.010167832 0.12874702 0.82574916 4279887360
-0.059546355 0.1277371 0.830329 4279887360
-0.12907827 0.1266261 0.83530253 4281519360
0.11501049 0.095378108 0.81593829 4279887360
0.045392215 0.094543882 0.82035804 4279887360
-0.024427818 0.093601912 0.82492441 4279887360
-0.094162807 0.092543669 0.82973009 4279887360
0.080534406 0.060175542 0.81509978 4279887360
0.010751913 0.059289925 0.81959707 4279887360
-0.059069172 0.058274563 0.82421738 4279887360
-0.12871243 0.057192698 0.82921863 4279887360
0.11565772 0.025855778 0.80979103 4279887360
0.045989577 0.024969662 0.81427097 4279887360
-0.023878878 0.024039485 0.81888717 4279887360
-0.093670569 0.022997167 0.82357627 4279887360
0.12429549 0.15369685 0.97143573 4279887360
0.054691207 0.15282519 0.97586137 4279887360
-0.015040177 0.15184854 0.98041898 4279887360
-0.084737644 0.15083741 0.98520815 4279887360
0.089843065 0.1186272 0.97059554 4279887360
0.020091457 0.11769647 0.97505158 4279887360
-0.049676806 0.1166923 0.9797287 4279887360
-0.1193202 0.11560855 0.98473531 4279887360
0.12501436 0.084337518 0.96526068 4279887360
0.055351738 0.083453439 0.96969759 4279887360
-0.014506747 0.082496449 0.97426689 4279887360
-0.084308162 0.081439279 0.97914636 4279887360
0.090512425 0.049069203 0.96441036 4279887360
0.02070082 0.048150219 0.96894014 4279887360
-0.049150638 0.047131669 0.97363335 4279887360
-0.11887367 0.046055842 0.97866029 4279887360
0.12565815 0.014756698 0.95911855 4279887360
0.055957969 0.013825255 0.96361709 4279887360
-0.013927694 0.012864926 0.96821177 4279887360
-0.083772741 0.011819367 0.97304887 4279887360
0.13363619 0.093668222 1.1171296 4279887360
0.063923955 0.092768997 1.1215714 4278255360
-0.0059096618 0.091806367 1.1261255 4278255360
-0.075709984 0.090823323 1.1309136 4278255360
0.099088207 0.058477879 1.116264 4278255360
0.029265407 0.057518698 1.1207488 4278255360
-0.040587615 0.056528166 1.1254734 4278255360
-0.11034007 0.055498037 1.1304672 4278255360
0.1342731 0.024129163 1.110991 4279887360
0.064561397 0.023183076 1.1154071 4278255360
-0.0053658565 0.022242898 1.1200265 4278255360
-0.075248212 0.021214999 1.1249013 4278255360
0.099690109 -0.011214332 1.1101435 4278255360
0.029865956 -0.012169478 1.1146517 4278255360
-0.040025137 -0.013182816 1.1193928 4278255360
-0.10983536 -0.014200662 1.1243846 4278255360
0.13482362 -0.045543149 1.1049205 4279887360
0.065097339 -0.04649571 1.1093531 4278255360
-0.0047898861 -0.047477625 1.1140122 4278255360
-0.074670203 -0.048486117 1.1188267 4278255360
0.12419362 0.10460762 0.96768916 4279887360
0.054535765 0.10370491 0.97220469 4279887360
-0.015258821 0.10272989 0.97675455 4279887360
-0.085016668 0.10171887 0.98157722 4279887360
0.089691341 0.069446914 0.96689314 4279887360
0.019904207 0.068489753 0.97139513 4279887360
-0.049921319 0.067483634 0.97607648 4279887360
-0.11960679 0.066419244 0.98108816 4279887360
0.12486076 0.035122167 0.9615671 4279887360
0.055162746 0.034190562 0.96602339 4279887360
-0.014714211 0.033219751 0.97062165 4279887360
-0.084560767 0.032190949 0.97553641 4279887360
0.090314299 -0.00021040172 0.96072406 4279887360
0.020499684 -0.0011575915 0.96525562 4279887360
-0.049370825 -0.0021778485 0.96999282 4279887360
-0.11911478 -0.0032218928 0.97502834 4279887360
0.12544407 -0.034508776 0.95543259 4279887360
0.055744033 -0.035492543 0.95993298 4279887360
-0.014128008 -0.036455661 0.96458769 4279887360
-0.083975874 -0.037483767 0.96939796 4279887360
0.11452235 0.11548104 0.8183555 4279887360
0.044915862 0.11463229 0.82282722 4279887360
-0.02483367 0.11365388 0.82737088 4281519360
-0.094515033 0.11262496 0.83211267 4281519360
0.080061689 0.080384932 0.81750852 4279887360
0.010290757 0.079471409 0.82201904 4279887360
-0.059489321 0.078452155 0.82665116 4281519360
-0.12908167 0.077369191 0.83164161 4281519360
0.1152046 0.046072755 0.81214905 4279887360
0.045553744 0.045173783 0.81663281 4281519360
-0.024329104 0.044228185 0.82120055 4281519360
-0.094115205 0.043184478 0.82606667 4281519360
0.080689952 0.010770188 0.81131136 4279887360
0.010875425 0.0098469583 0.81583846 4281519360
-0.058979519 0.0088436166 0.82054466 4281519360
-0.12864277 0.0078008827 0.82556975 4281519360
0.11579087 -0.023531593 0.80603093 4279887360
0.046118323 -0.024485826 0.81051737 4281519360
-0.023768106 -0.025442043 0.81517309 4281519360
-0.09356612 -0.026453072 0.81993395 4281519360
0.11395308 0.0655922 0.81462991 4279887360
0.044300616 0.064693682 0.81911057 4279887360
-0.025520431 0.063713647 0.82366359 4279887360
-0.095262766 0.06270422 0.82838428 4279887360
0.079443641 0.030397406 0.813797 4279887360
0.0096373986 0.029445017 0.81831241 4279887360
-0.060196362 0.028447265 0.82294875 4279887360
-0.12983084 0.027407831 0.82793021 4279887360
0.11456965 -0.0039157108 0.80845493 4279887360
0.044899199 -0.0048739635 0.81291759 4279887360
-0.025002209 -0.0058431388 0.81753075 4279887360
-0.094813697 -0.0068510608 0.8223905 4279887360
0.080013134 -0.039263967 0.80761117 4279887360
0.010209301 -0.040234715 0.81215048 4279887360
-0.0596423 -0.041232046 0.8168506 4279887360
-0.12931113 -0.04222662 0.82186931 4279887360
0.11508941 -0.073519789 0.80237466 4279887360
0.04543196 -0.074534528 0.80685985 4279887360
-0.02441608 -0.075501397 0.81147927 4279887360
-0.094198026 -0.076480128 0.81622887 4279887360
0.1239668 0.054588322 0.96386194 4279887360
0.054268964 0.053644482 0.96837342 4279887360
-0.015564792 0.052648518 0.97296125 4279887360
-0.085358009 0.051665355 0.9777388 4279887360
0.089422248 0.019342339 0.96304482 4279887360
0.019607391 0.018367171 0.96758115 4279887360
-0.05024074 0.017366229 0.97229832 4279887360
-0.11994413 0.01633626 0.97725904 4279887360
0.12457695 -0.01496345 0.95774442 4279887360
0.054873034 -0.015943069 0.96219045 4279887360
-0.015027848 -0.016935619 0.96683049 4279887360
-0.084873155 -0.017945023 0.97175163 4279887360
0.089999467 -0.050324202 0.95688629 4279887360
0.020188766 -0.051314518 0.9614352 4279887360
-0.04967314 -0.052335899 0.96619153 4279887360
-0.11940038 -0.053342525 0.97121543 4279887360
0.12509491 -0.084587768 0.95161307 4279887360
0.055411126 -0.085611738 0.95613402 4279887360
-0.014435888 -0.086599559 0.96078992 4279887360
-0.084254451 -0.087602533 0.96560508 4279887360
0.13314492 0.043632269 1.1134435 4279887360
0.063431211 0.042689055 1.1179152 4278255360
-0.0064114267 0.04172476 1.1225283 4278255360
-0.076253884 0.040755719 1.1273146 4278255360
0.098582938 0.0083834417 1.1126555 4279887360
0.028754635 0.0074183592 1.1171323 4278255360
-0.041107427 0.0064358823 1.1218225 4278255360
-0.11085812 0.0054215197 1.1267926 4278255360
0.13373142 -0.025949415 1.1073238 4279887360
0.064023711 -0.026916908 1.1118113 4278255360
-0.005882618 -0.027887972 1.1163908 4278255360
-0.075762324 -0.02888545 1.1212714 4278255360
0.099136464 -0.061305579 1.1065143 4278255360
0.029319244 -0.062271878 1.1110308 4278255360
-0.040539559 -0.063283466 1.1157541 4278255360
-0.11031706 -0.064276427 1.1207479 4278255360
0.13423118 -0.09556891 1.1011883 4279887360
0.064542703 -0.096582152 1.1057469 4278255360
-0.0053126574 -0.097550906 1.1103673 4278255360
-0.075148776 -0.098559909 1.1151375 4278255360
0.10731354 0.075532503 1.1175653 4279887360
0.038161643 0.066099361 1.1213019 4279887360
-0.031092258 0.056597207 1.1252198 4279887360
-0.10031135 0.047116093 1.1293426 4279887360
0.077276044 0.036349315 1.1161302 4279887360
0.0080313981 0.026879864 1.1199443 4279887360
-0.061222427 0.017373122 1.1239724 4279887360
-0.13034932 0.0078498423 1.1282574 4279887360
0.11641807 0.0065948809 1.1109557 4279887360
0.04725834 -0.0028583209 1.1147114 4279887360
-0.022056377 -0.012350794 1.1186206 4279887360
-0.091312237 -0.021873822 1.1228131 4279887360
0.086376175 -0.032696694 1.1095362 4279887360
0.017129093 -0.042178921 1.1133589 4279887360
-0.052146245 -0.051700197 1.1174144 4279887360
-0.12129562 -0.061208375 1.1216959 4279887360
0.12546436 -0.062429283 1.1043789 4281519360
0.056321613 -0.071919248 1.1081647 4279887360
-0.012952404 -0.081397109 1.1121007 4279887360
-0.082198024 -0.090923846 1.116259 4279887360
0.14763679 0.021946603 1.1106919 4279887360
0.078113228 0.026439587 1.1156147 4278255360
0.0084432606 0.030911893 1.1205984 4278255360
-0.06123006 0.03539481 1.1257542 4278255360
0.11044868 -0.010521375 1.1103154 4278255360
0.040808633 -0.0060499199 1.1152312 4278255360
-0.02888369 -0.0015921287 1.1203367 4278255360
-0.098479629 0.0028476869 1.1256527 4278255360
0.14278239 -0.047480788 1.1049925 4278255360
0.073259406 -0.043029137 1.1098325 4278255360
0.0035333822 -0.038562011 1.1148669 4278255360
-0.066175565 -0.034112591 1.1201441 4278255360
0.1055584 -0.080053195 1.1045638 4278255360
0.035929006 -0.075592414 1.1094955 4278255360
-0.033775888 -0.0711594 1.1146252 4278255360
-0.10338382 -0.066710509 1.1200236 4278255360
0.1378525 -0.11695746 1.0993288 4278255360
0.068330742 -0.11254103 1.1041777 4278255360
-0.0013415721 -0.10808835 1.1092569 4278255360
-0.071012713 -0.10364682 1.114468 4278255360
0.12088062 0.0060363472 1.1343638 4279887360
0.05109084 0.0047170329 1.1380423 4279887360
-0.018820066 0.0033898691 1.1418899 4279887360
-0.08869832 0.0020927691 1.1459087 4279887360
0.086276032 -0.028990716 1.1299295 4279887360
0.016397741 -0.030314278 1.133698 4279887360
-0.053506233 -0.031642936 1.1376355 4279887360
-0.1232856 -0.032996036 1.1418083 4279887360
0.12147778 -0.062702984 1.1218388 4279887360
0.051687837 -0.064026289 1.1255214 4279887360
-0.018243976 -0.065343641 1.1293528 4279887360
-0.088134728 -0.066697299 1.1334721 4279887360
0.086854026 -0.097795226 1.1173927 4279887360
0.017002087 -0.099111997 1.1211686 4279887360
-0.052892443 -0.10047072 1.1251228 4279887360
-0.12267144 -0.10180872 1.1293454 4279887360
0.12200038 -0.13143919 1.1093365 4281519360
0.052249555 -0.13279817 1.1130401 4279887360
-0.017619276 -0.13411434 1.1169478 4279887360
-0.08747182 -0.13545436 1.1209618 4279887360
0.11808458 0.20013924 1.0937998 4283151360
0.048438627 0.19899285 1.0976197 4281519360
-0.021294378 0.19776709 1.1016407 4279887360
-0.091002867 0.19651252 1.1058848 4279887360
0.084014274 0.1648806 1.0972364 4281519360
0.014258052 0.16369717 1.1011765 4279887360
-0.055520248 0.16244335 1.105299 4279887360
-0.12518382 0.16114315 1.1098083 4279887360
0.11965255 0.1306826 1.0969306 4281519360
0.049942799 0.12953009 1.1007704 4279887360
-0.019926418 0.12831436 1.1047549 4278255360
-0.089747772 0.12704104 1.1091254 4279887360
0.085539587 0.09522032 1.1004128 4279887360
0.015705198 0.094047561 1.1043096 4279887360
-0.054149464 0.092780799 1.1084756 4278255360
-0.12392027 0.091491826 1.1130087 4279887360
0.12117439 0.060966518 1.1001377 4281519360
0.051396668 0.059786532 1.1039623 4279887360
-0.018507333 0.058592048 1.1080229 4278255360
-0.088376403 0.057302043 1.1122769 4278255360
0.27749962 0.078671612 1.0587682 4283151360
0.20930159 0.077242509 1.0711703 4281519360
0.14084034 0.075775526 1.0837556 4279887360
0.07218463 0.074310012 1.0964274 4278255360
0.24392794 0.043184385 1.0631469 4281519360
0.17558737 0.041715398 1.0757248 4279887360
0.10700536 0.040190481 1.0883465 4278255360
0.038319457 0.038631402 1.1011199 4278255360
0.27851504 0.009168392 1.0551318 4281519360
0.21033718 0.0076459106 1.0676088 4279887360
0.14181256 0.0061112233 1.080186 4278255360
0.073134631 0.0045368141 1.0929888 4278255360
0.24491118 -0.026470277 1.0596194 4281519360
0.17655922 -0.028027749 1.072135 4279887360
0.10796412 -0.029640429 1.0848005 4278255360
0.039254967 -0.031251386 1.097708 4278255360
0.27945042 -0.06043845 1.0517123 4281519360
0.21124992 -0.062053252 1.0641345 4279887360
0.142766 -0.063662462 1.0767401 4278255360
0.074076422 -0.065322302 1.0894464 4278255360
-0.002771962 0.074988753 1.1641792 4279887360
-0.072247088 0.074099913 1.1559138 4278255360
-0.14169386 0.073204786 1.1478775 4278255360
-0.21097951 0.072303988 1.140015 4278255360
-0.036952917 0.03966888 1.158456 4278255360
-0.1064521 0.038797267 1.150273 4278255360
-0.17583819 0.03790167 1.1423628 4278255360
-0.24499243 0.036992546 1.1345825 4279887360
-0.0015638274 0.0051533096 1.1610339 4279887360
-0.071049266 0.0043190648 1.1527218 4278255360
-0.14055783 0.0034804675 1.1446521 4278255360
-0.20991668 0.0026061896 1.1368662 4278255360
-0.035733603 -0.030259944 1.1552906 4278255360
-0.10524929 -0.031068515 1.1470944 4278255360
-0.17465945 -0.031911649 1.1391412 4278255360
-0.24387382 -0.032770038 1.1314667 4279887360
-0.00035878678 -0.064763553 1.1578636 4279887360
-0.069858588 -0.065570839 1.149596 4278255360
-0.1393453 -0.066355854 1.1415538 4278255360
-0.20866726 -0.0671857 1.1336472 4278255360
